ply
format ascii 1.0
comment made by TASHA
comment this file is an RGB Depth Image
element vertex 1707
property float x
property float y
property float z
property uchar red
property uchar green
property uchar blue
end_header
217 21 1092.2 236 232 229
218 21 1092.2 236 233 225
219 21 1089.6000000000001 236 233 225
220 21 1087.2 235 232 220
379 21 221.0 114 72 68
380 21 220.8 98 50 50
381 21 220.4 94 46 46
382 21 220.4 96 46 44
383 21 220.20000000000002 102 52 50
384 21 220.0 98 54 48
385 21 220.0 97 52 47
386 21 219.60000000000002 98 54 46
387 21 219.60000000000002 94 49 42
388 21 219.4 93 47 37
389 21 219.4 93 47 37
390 21 219.20000000000002 88 42 31
391 21 219.20000000000002 91 45 33
392 21 219.20000000000002 95 46 35
393 21 219.20000000000002 93 45 34
394 21 219.4 90 47 32
395 21 219.4 90 47 32
396 21 219.4 85 44 29
397 21 219.60000000000002 84 43 27
398 21 219.8 87 47 31
399 21 220.0 84 43 27
400 21 220.0 84 43 29
401 21 220.0 84 43 29
402 21 220.0 82 44 29
403 21 220.0 83 45 31
404 21 220.20000000000002 76 37 26
405 21 220.20000000000002 75 36 24
406 21 220.20000000000002 78 39 27
407 21 220.0 81 42 30
408 21 220.0 77 40 30
409 21 219.8 75 38 28
410 21 219.8 74 37 24
411 21 219.60000000000002 70 34 21
412 21 219.4 70 33 23
413 21 219.4 69 32 22
414 21 219.20000000000002 67 30 19
415 21 219.20000000000002 67 30 19
416 21 219.0 70 34 21
417 21 219.20000000000002 69 32 20
418 21 219.0 69 32 20
419 21 219.20000000000002 68 31 19
420 21 219.20000000000002 69 32 20
437 21 223.4 60 21 7
438 21 223.0 64 28 13
439 21 222.60000000000002 64 28 13
440 21 222.60000000000002 63 29 13
441 21 222.4 63 29 13
442 21 222.20000000000002 58 26 10
443 21 222.0 62 31 14
444 21 222.0 62 31 14
445 21 221.8 62 31 14
446 21 221.8 60 31 13
447 21 221.8 61 32 14
448 21 222.0 58 31 15
449 21 222.0 57 30 14
450 21 222.20000000000002 55 27 14
451 21 222.4 53 26 12
452 21 222.60000000000002 56 26 14
453 21 222.8 60 30 17
454 21 223.20000000000002 60 30 17
455 21 223.60000000000002 58 29 16
456 21 224.20000000000002 57 27 15
457 21 224.60000000000002 60 30 17
458 21 225.20000000000002 60 28 16
459 21 225.60000000000002 62 30 18
460 21 226.20000000000002 65 33 19
461 21 226.8 68 36 22
462 21 227.4 72 38 24
463 21 228.0 83 48 35
464 21 228.8 83 46 36
465 21 229.4 84 47 37
466 21 229.8 86 45 43
467 21 230.20000000000002 100 59 57
468 21 230.8 110 78 77
469 21 231.20000000000002 128 97 96
470 21 231.8 124 102 100
471 21 232.20000000000002 121 98 97
472 21 233.0 165 160 153
473 21 233.20000000000002 204 198 191
474 21 233.60000000000002 194 196 188
475 21 234.20000000000002 191 192 185
476 21 234.20000000000002 189 189 187
477 21 234.20000000000002 186 187 184
478 21 234.20000000000002 184 184 184
479 21 233.8 185 185 185
480 21 233.60000000000002 189 187 185
481 21 233.4 187 185 183
482 21 233.0 192 187 187
483 21 232.8 194 190 189
484 21 232.4 193 189 186
485 21 232.20000000000002 191 187 183
486 21 232.20000000000002 198 194 190
487 21 232.0 191 187 183
488 21 232.20000000000002 188 184 181
489 21 232.20000000000002 188 184 181
513 21 239.4 189 187 183
514 21 239.0 187 185 183
516 21 237.8 188 173 180
517 21 237.20000000000002 129 115 122
518 21 236.8 106 75 83
519 21 236.20000000000002 113 82 90
527 21 218.4 82 45 33
528 21 218.20000000000002 77 40 32
529 21 218.4 75 37 30
530 21 218.20000000000002 75 37 32
531 21 218.20000000000002 73 35 29
532 21 218.0 70 29 25
533 21 218.0 68 28 23
534 21 218.0 68 28 23
535 21 217.4 68 28 23
536 21 216.8 70 30 23
602 21 219.8 56 26 14
603 21 219.60000000000002 57 27 15
604 21 219.0 61 31 16
605 21 218.60000000000002 61 31 16
606 21 218.20000000000002 60 30 15
607 21 218.4 57 28 13
608 21 218.20000000000002 57 27 19
609 21 218.0 65 35 27
610 21 217.8 74 40 38
611 21 217.60000000000002 76 43 40
612 21 217.60000000000002 83 52 44
613 21 217.4 85 55 47
614 21 217.4 96 72 62
615 21 217.4 97 73 63
616 21 217.20000000000002 148 136 124
617 21 217.20000000000002 197 185 173
618 21 217.20000000000002 186 181 174
619 21 217.20000000000002 186 181 174
620 21 217.20000000000002 180 181 178
621 21 217.20000000000002 179 180 177
622 21 217.20000000000002 179 181 180
623 21 217.4 181 184 183
624 21 217.60000000000002 177 182 182
625 21 217.8 181 185 186
626 21 218.0 181 185 186
627 21 218.4 182 186 187
628 21 218.60000000000002 180 184 185
632 21 219.60000000000002 182 181 184
633 21 219.60000000000002 186 186 188
643 21 217.4 178 179 183
644 21 217.0 182 184 186
645 21 216.60000000000002 181 183 185
646 21 216.4 179 181 182
647 21 216.4 188 190 192
648 21 216.4 173 158 165
649 21 216.20000000000002 125 110 117
650 21 216.20000000000002 117 86 97
651 21 216.20000000000002 121 90 100
652 21 216.20000000000002 127 88 92
660 21 201.4 75 41 39
661 21 201.4 76 43 40
662 21 201.20000000000002 76 45 37
663 21 201.0 74 43 35
664 21 200.8 67 40 28
665 21 200.60000000000002 71 43 32
666 21 200.4 67 40 26
667 21 200.4 66 39 25
668 21 200.4 69 39 24
669 21 200.20000000000002 68 38 23
670 21 200.20000000000002 67 37 22
671 21 200.20000000000002 62 33 17
672 21 200.20000000000002 62 31 14
673 21 200.20000000000002 67 36 19
674 21 200.60000000000002 66 35 16
675 21 200.60000000000002 69 38 19
676 21 200.60000000000002 71 42 25
677 21 200.8 64 35 18
678 21 201.0 62 33 17
679 21 201.20000000000002 67 37 22
680 21 201.60000000000002 69 39 26
681 21 202.0 64 34 22
682 21 202.20000000000002 57 24 12
683 21 202.60000000000002 58 25 14
684 21 202.8 64 31 23
685 21 203.0 66 33 26
686 21 203.0 57 26 21
687 21 203.0 63 32 27
688 21 202.8 65 34 29
689 21 202.60000000000002 67 36 30
737 21 187.20000000000002 52 37 17
738 21 187.20000000000002 51 36 18
739 21 187.0 52 37 19
740 21 187.0 44 30 18
741 21 187.0 46 32 21
742 21 187.0 45 31 20
743 21 187.0 43 28 17
744 21 186.60000000000002 50 33 23
745 21 186.4 49 32 22
746 21 186.20000000000002 44 28 15
747 21 186.0 43 27 14
748 21 185.8 44 28 15
749 21 185.60000000000002 47 30 18
750 21 185.60000000000002 52 36 23
751 21 185.20000000000002 55 39 26
752 21 185.0 56 35 21
753 21 184.8 54 34 20
754 21 184.60000000000002 54 32 12
755 21 184.4 56 34 14
756 21 184.20000000000002 60 36 15
757 21 184.20000000000002 58 34 12
758 21 184.0 58 33 16
759 21 184.0 59 34 17
760 21 184.0 61 38 25
761 21 184.0 63 40 27
762 21 184.0 63 42 28
763 21 184.0 61 41 27
764 21 183.8 57 40 21
765 21 183.8 62 45 26
766 21 183.8 65 51 28
767 21 184.0 59 45 22
768 21 184.0 76 59 47
769 21 184.20000000000002 83 66 54
770 21 184.4 70 52 51
771 21 184.4 91 73 72
772 21 184.4 99 97 96
773 21 184.60000000000002 173 171 169
805 21 3485.4 176 191 197
806 21 3389.4 182 197 213
807 21 3436.8 185 201 216
808 21 3461.0 182 200 217
809 21 3485.4 220 237 254
810 21 3485.4 223 242 254
811 21 3485.4 215 234 245
812 21 3461.0 210 224 237
813 21 3436.8 197 211 224
814 21 3389.4 184 195 211
815 21 3298.4 185 196 213
816 21 3254.6000000000004 184 193 210
817 21 3130.2000000000003 186 195 213
818 21 3071.6000000000004 191 199 219
819 21 2978.6000000000004 196 204 224
830 21 2329.2000000000003 199 214 234
831 21 2307.2000000000003 204 219 239
832 21 2296.6 210 220 246
833 21 2285.8 215 224 251
835 21 2254.4 206 218 244
836 21 2244.0 204 221 245
837 21 2244.0 211 228 252
838 21 2244.0 202 227 251
839 21 2233.8 198 224 247
840 21 2233.8 202 225 249
841 21 2244.0 207 230 254
842 21 2233.8 202 223 248
843 21 2233.8 204 225 249
844 21 2244.0 205 225 245
41 22 705.0 71 88 83
42 22 705.0 75 90 85
43 22 704.0 75 90 85
44 22 704.0 73 87 85
45 22 704.0 71 85 82
46 22 703.0 77 93 104
47 22 704.0 88 105 115
48 22 703.0 91 113 119
49 22 703.0 96 118 124
50 22 703.0 93 117 125
51 22 705.0 91 114 122
52 22 706.2 93 116 127
53 22 708.2 97 120 130
54 22 709.2 87 111 121
55 22 710.2 90 113 123
56 22 712.2 91 112 123
57 22 713.2 90 111 122
58 22 714.4000000000001 93 117 125
59 22 714.4000000000001 94 118 126
60 22 716.4000000000001 91 115 120
61 22 717.4000000000001 93 117 123
62 22 717.4000000000001 95 117 121
63 22 718.4000000000001 100 123 126
64 22 720.6 103 123 128
65 22 723.8000000000001 102 122 126
66 22 728.0 100 119 124
67 22 732.4000000000001 101 121 125
68 22 736.8000000000001 100 119 126
69 22 742.4000000000001 97 117 124
70 22 748.0 99 116 126
71 22 753.8000000000001 101 118 128
72 22 757.2 104 111 125
73 22 762.0 102 109 122
74 22 764.4000000000001 109 113 130
75 22 765.6 114 118 135
76 22 766.6 107 116 133
77 22 766.6 105 113 131
78 22 766.6 102 114 128
79 22 766.6 104 116 130
80 22 765.6 106 120 134
81 22 765.6 110 124 137
82 22 764.4000000000001 111 126 142
83 22 763.2 112 128 143
84 22 762.0 113 131 145
85 22 760.8000000000001 111 130 144
86 22 758.4000000000001 115 133 145
87 22 756.0 108 126 138
88 22 755.0 97 118 116
89 22 752.6 55 76 74
90 22 751.4000000000001 14 28 12
91 22 750.4000000000001 0 12 0
92 22 749.2 7 7 9
93 22 749.2 7 7 9
94 22 746.8000000000001 1 9 13
95 22 746.8000000000001 4 13 17
96 22 745.8000000000001 1 15 12
97 22 745.8000000000001 0 14 11
98 22 744.6 1 10 9
99 22 743.6 2 11 10
100 22 742.4000000000001 16 14 12
101 22 742.4000000000001 26 24 22
102 22 742.4000000000001 33 33 29
103 22 742.4000000000001 34 35 30
104 22 745.8000000000001 30 39 29
105 22 749.2 35 43 34
106 22 752.6 32 48 38
107 22 759.6 33 49 39
108 22 766.6 28 43 35
109 22 774.0 31 46 39
110 22 782.6 30 45 38
111 22 790.2 36 51 43
112 22 796.6 35 48 41
113 22 803.0 33 45 39
114 22 808.4000000000001 30 43 36
115 22 812.4000000000001 32 44 38
116 22 816.4000000000001 21 35 32
117 22 817.8000000000001 17 31 29
118 22 820.4000000000001 9 30 27
119 22 823.2 11 32 30
120 22 824.6 26 47 47
121 22 826.0 47 68 68
122 22 827.4000000000001 53 67 65
123 22 828.8000000000001 58 72 70
124 22 828.8000000000001 52 66 66
125 22 828.8000000000001 47 61 61
126 22 828.8000000000001 39 54 58
127 22 828.8000000000001 18 33 37
128 22 828.8000000000001 20 29 33
129 22 828.8000000000001 24 32 36
130 22 828.8000000000001 33 34 27
131 22 828.8000000000001 29 30 23
132 22 827.4000000000001 62 71 54
133 22 827.4000000000001 76 85 68
134 22 827.4000000000001 65 89 67
135 22 827.4000000000001 64 88 66
136 22 827.4000000000001 58 86 70
137 22 827.4000000000001 53 81 65
138 22 827.4000000000001 56 86 72
139 22 828.8000000000001 48 78 63
140 22 830.2 52 79 68
141 22 833.0 58 85 74
142 22 837.2 52 79 68
143 22 841.6 55 82 70
144 22 847.4000000000001 57 82 71
145 22 853.2 59 83 72
146 22 860.6 60 84 74
147 22 868.2 54 78 68
148 22 876.0 54 78 68
149 22 884.0 56 81 70
150 22 887.2 56 83 69
151 22 892.0 53 81 67
152 22 893.6 50 73 58
153 22 896.8000000000001 46 69 54
154 22 896.8000000000001 51 65 53
155 22 898.4000000000001 51 65 53
156 22 896.8000000000001 60 68 63
157 22 898.4000000000001 57 65 60
158 22 900.0 49 61 57
159 22 901.8000000000001 63 75 71
160 22 901.8000000000001 69 79 74
161 22 903.4000000000001 72 82 76
162 22 905.0 65 72 61
163 22 908.4000000000001 69 75 64
164 22 910.0 68 70 55
165 22 913.4000000000001 65 68 53
166 22 916.8000000000001 68 67 56
167 22 920.4000000000001 67 66 55
168 22 922.0 68 62 57
169 22 923.8000000000001 64 58 53
170 22 929.0 66 57 53
171 22 932.6 84 76 72
172 22 937.8000000000001 75 69 62
173 22 945.2 72 67 59
174 22 956.2 69 68 59
176 22 981.0 70 69 61
202 22 1437.0 21 38 35
203 22 1467.0 26 43 39
204 22 1521.6000000000001 24 39 34
205 22 1595.6000000000001 31 46 41
206 22 1606.0 32 41 31
207 22 1560.2 31 40 30
208 22 1535.8000000000002 42 41 33
209 22 1540.6000000000001 94 93 84
214 22 1231.8000000000002 228 228 228
216 22 1097.0 231 229 225
217 22 1094.6000000000001 236 234 230
218 22 1094.6000000000001 241 237 231
219 22 1092.2 240 236 230
220 22 1087.2 233 232 224
300 22 2340.2000000000003 216 208 201
301 22 2340.2000000000003 215 207 200
302 22 2340.2000000000003 206 205 201
381 22 220.60000000000002 101 56 53
382 22 220.60000000000002 92 48 42
383 22 220.60000000000002 103 58 53
384 22 220.20000000000002 98 54 48
385 22 220.0 96 51 46
386 22 219.8 96 51 46
387 22 219.60000000000002 94 49 44
388 22 219.4 94 49 42
389 22 219.4 91 47 39
390 22 219.4 92 45 36
391 22 219.4 92 45 36
392 22 219.4 93 47 37
393 22 219.4 94 48 38
394 22 219.4 93 47 37
395 22 219.4 91 44 35
396 22 219.4 89 45 35
397 22 219.60000000000002 87 43 33
398 22 219.8 87 46 33
402 22 220.20000000000002 83 42 28
404 22 220.20000000000002 81 42 30
405 22 220.20000000000002 75 36 24
406 22 220.20000000000002 71 34 24
407 22 220.0 71 34 24
408 22 220.0 80 43 30
409 22 220.0 70 34 21
410 22 219.8 69 33 18
411 22 219.8 68 32 17
412 22 219.4 72 33 21
413 22 219.4 70 30 19
414 22 219.0 70 30 19
415 22 218.8 70 30 19
416 22 219.0 68 31 19
417 22 218.8 67 30 17
418 22 218.8 64 28 15
442 22 221.8 61 30 13
443 22 221.8 60 29 12
444 22 221.60000000000002 60 29 12
445 22 221.60000000000002 59 27 11
446 22 221.60000000000002 60 29 12
447 22 221.60000000000002 59 27 11
448 22 221.8 57 28 11
449 22 221.8 56 27 10
450 22 222.0 53 21 9
451 22 222.20000000000002 58 25 14
452 22 222.60000000000002 57 27 15
453 22 222.8 58 29 16
454 22 223.20000000000002 60 30 17
455 22 223.60000000000002 57 27 15
456 22 224.0 58 29 16
457 22 224.60000000000002 60 30 17
458 22 225.20000000000002 57 27 15
459 22 225.8 60 30 17
460 22 226.4 64 32 17
461 22 227.20000000000002 67 35 21
462 22 227.8 64 30 16
463 22 228.60000000000002 65 31 17
464 22 229.4 79 37 29
466 22 230.4 86 44 40
467 22 230.8 90 47 43
468 22 231.20000000000002 88 56 53
469 22 231.60000000000002 114 83 80
470 22 232.0 124 99 96
471 22 232.60000000000002 127 102 99
472 22 233.0 128 118 108
473 22 233.20000000000002 193 183 173
474 22 233.60000000000002 196 198 185
475 22 234.20000000000002 194 196 184
476 22 234.4 190 194 186
477 22 234.4 190 194 186
478 22 234.20000000000002 189 192 191
479 22 234.0 183 186 185
480 22 233.60000000000002 189 187 185
481 22 233.4 187 185 183
482 22 233.20000000000002 194 190 189
483 22 232.8 191 186 185
484 22 232.4 186 180 178
485 22 232.4 191 185 182
486 22 232.4 196 190 185
487 22 232.20000000000002 196 190 185
488 22 232.4 195 191 188
489 22 232.4 195 191 188
490 22 232.60000000000002 196 189 187
513 22 239.4 189 187 185
514 22 239.20000000000002 188 186 184
516 22 238.20000000000002 191 179 181
517 22 237.60000000000002 130 119 120
518 22 237.0 109 80 88
519 22 236.8 112 84 91
520 22 236.60000000000002 104 67 70
527 22 218.4 80 43 30
528 22 218.20000000000002 76 38 33
529 22 218.20000000000002 70 32 27
530 22 218.20000000000002 69 31 28
531 22 218.0 67 29 25
532 22 218.0 68 28 25
533 22 218.0 71 30 28
534 22 218.0 70 29 25
535 22 217.4 68 28 23
543 22 211.20000000000002 68 30 23
544 22 211.20000000000002 69 32 24
545 22 211.20000000000002 69 32 24
546 22 211.20000000000002 67 29 21
553 22 210.8 61 36 24
567 22 207.0 65 37 26
568 22 206.8 62 34 23
569 22 206.8 56 28 17
570 22 206.4 61 31 18
571 22 206.4 65 36 23
602 22 219.8 54 24 11
603 22 219.60000000000002 55 25 12
605 22 218.60000000000002 62 35 15
606 22 218.4 62 35 17
607 22 218.4 64 37 19
608 22 218.20000000000002 58 30 21
609 22 218.20000000000002 62 33 25
610 22 218.0 65 31 27
611 22 217.8 61 28 23
612 22 217.8 83 45 40
613 22 217.60000000000002 96 58 53
614 22 217.60000000000002 109 81 72
615 22 217.4 96 68 60
616 22 217.20000000000002 109 95 82
617 22 217.20000000000002 189 176 162
618 22 217.20000000000002 192 182 174
619 22 217.20000000000002 190 179 172
620 22 217.20000000000002 182 179 173
621 22 217.4 182 179 173
622 22 217.4 175 178 175
623 22 217.60000000000002 180 183 180
628 22 219.0 177 182 180
629 22 219.20000000000002 182 187 185
632 22 219.60000000000002 179 181 180
648 22 216.4 193 180 189
649 22 216.4 149 136 145
650 22 216.20000000000002 122 92 104
651 22 216.20000000000002 120 91 103
652 22 216.20000000000002 113 76 79
660 22 201.4 74 41 36
661 22 201.0 74 41 36
662 22 201.0 73 40 33
663 22 200.8 75 42 35
664 22 200.60000000000002 77 47 37
665 22 200.60000000000002 75 45 34
666 22 200.4 69 39 28
667 22 200.20000000000002 70 40 30
668 22 200.4 72 39 30
669 22 200.20000000000002 69 37 27
670 22 200.20000000000002 72 40 26
671 22 200.20000000000002 64 32 17
672 22 200.4 61 30 11
673 22 200.60000000000002 64 32 13
674 22 200.8 66 35 16
675 22 200.8 68 37 18
676 22 201.0 67 38 20
677 22 201.20000000000002 63 34 17
678 22 201.4 60 31 13
679 22 201.60000000000002 68 39 21
680 22 201.60000000000002 69 39 24
681 22 202.0 65 36 21
682 22 202.20000000000002 58 29 14
683 22 202.4 62 33 17
684 22 202.60000000000002 61 31 20
685 22 202.8 65 35 25
686 22 202.8 57 27 17
687 22 202.60000000000002 61 31 20
688 22 202.4 64 34 26
689 22 202.4 67 36 28
690 22 202.20000000000002 68 37 29
691 22 202.0 60 29 21
692 22 201.4 57 27 19
693 22 200.60000000000002 61 30 22
694 22 200.0 64 34 26
695 22 199.8 63 32 25
696 22 199.20000000000002 65 32 25
737 22 187.60000000000002 59 45 20
738 22 187.4 47 35 12
739 22 187.4 47 35 12
740 22 187.4 42 31 14
741 22 187.4 42 31 14
742 22 187.20000000000002 42 30 18
743 22 187.0 46 34 22
744 22 187.0 48 36 24
745 22 186.8 46 34 22
746 22 186.60000000000002 50 35 24
747 22 186.4 52 38 27
748 22 186.20000000000002 48 34 23
749 22 186.0 47 33 22
750 22 185.8 54 37 25
751 22 185.60000000000002 54 37 25
752 22 185.20000000000002 54 34 20
753 22 185.0 56 35 21
754 22 184.8 54 31 14
755 22 184.60000000000002 55 33 15
756 22 184.4 60 36 15
757 22 184.20000000000002 58 34 12
758 22 184.0 55 28 10
759 22 184.0 53 27 8
760 22 184.0 51 29 14
761 22 184.0 55 32 17
762 22 184.0 57 40 23
763 22 184.0 62 44 28
764 22 183.8 61 44 22
765 22 183.8 63 46 25
766 22 184.0 62 47 23
767 22 184.0 63 49 24
768 22 184.0 71 56 34
769 22 184.20000000000002 77 62 40
770 22 184.20000000000002 72 54 51
771 22 184.4 84 66 63
772 22 184.4 82 80 78
773 22 184.60000000000002 155 153 152
774 22 184.8 170 177 177
808 22 3485.4 175 194 206
809 22 3485.4 211 230 242
810 22 3485.4 230 249 255
811 22 3485.4 220 239 246
812 22 3485.4 224 245 254
813 22 3412.8 201 222 231
814 22 3389.4 177 193 206
815 22 3343.2000000000003 186 202 215
816 22 3298.4 191 200 215
817 22 3212.2000000000003 191 200 215
818 22 3110.4 189 195 214
819 22 3033.6000000000004 193 199 217
820 22 2960.6000000000004 189 200 219
829 22 2433.0 195 211 238
830 22 2409.0 194 209 231
831 22 2385.6 196 210 233
832 22 2362.8 208 213 238
833 22 2340.2000000000003 216 221 247
834 22 2329.2000000000003 210 217 242
835 22 2307.2000000000003 210 217 242
836 22 2296.6 201 220 241
837 22 2285.8 204 223 244
838 22 2285.8 200 227 247
839 22 2275.2000000000003 196 222 243
840 22 2264.8 197 221 243
841 22 2264.8 197 221 243
842 22 2264.8 206 228 248
843 22 2264.8 211 232 252
844 22 2264.8 215 234 253
845 22 2275.2000000000003 221 241 255
41 23 705.0 68 86 82
42 23 705.0 75 91 88
43 23 704.0 76 93 89
44 23 705.0 74 89 93
45 23 705.0 77 93 97
46 23 705.0 85 100 111
47 23 705.0 102 116 127
48 23 706.2 100 117 125
49 23 707.2 104 121 129
50 23 707.2 98 120 126
51 23 709.2 95 116 123
52 23 710.2 95 116 125
53 23 712.2 98 119 128
54 23 713.2 89 110 121
55 23 714.4000000000001 96 117 128
56 23 715.4000000000001 97 118 129
57 23 716.4000000000001 93 114 126
58 23 716.4000000000001 95 116 125
59 23 717.4000000000001 91 112 121
60 23 718.4000000000001 88 113 118
61 23 718.4000000000001 91 115 120
62 23 719.6 95 120 125
63 23 720.6 98 122 127
64 23 722.8000000000001 103 125 131
65 23 726.0 103 125 131
66 23 729.2 103 125 131
67 23 733.6 97 119 125
68 23 738.0 95 116 123
69 23 743.6 97 119 125
70 23 749.2 98 112 124
71 23 753.8000000000001 95 109 120
72 23 758.4000000000001 108 100 121
73 23 760.8000000000001 108 100 121
74 23 763.2 111 110 133
75 23 764.4000000000001 115 113 137
76 23 765.6 106 116 135
77 23 765.6 106 116 135
78 23 765.6 102 118 133
79 23 764.4000000000001 100 116 131
80 23 764.4000000000001 104 120 133
81 23 763.2 106 122 135
82 23 762.0 107 123 136
83 23 760.8000000000001 114 130 143
84 23 759.6 116 132 147
85 23 758.4000000000001 108 124 139
86 23 756.0 106 124 134
87 23 755.0 106 124 134
88 23 752.6 70 96 89
89 23 751.4000000000001 2 28 22
90 23 751.4000000000001 0 5 3
91 23 750.4000000000001 1 13 11
92 23 749.2 1 8 6
93 23 748.0 2 9 7
94 23 746.8000000000001 0 10 11
95 23 745.8000000000001 0 11 12
96 23 744.6 0 13 17
97 23 743.6 2 15 20
98 23 743.6 3 17 17
99 23 742.4000000000001 1 15 15
100 23 741.2 15 18 12
101 23 740.2 25 28 23
102 23 740.2 35 41 32
103 23 741.2 36 42 34
104 23 743.6 29 42 33
105 23 746.8000000000001 30 43 34
106 23 750.4000000000001 30 47 37
107 23 757.2 30 47 37
108 23 764.4000000000001 28 43 33
109 23 774.0 32 48 38
110 23 782.6 29 44 34
111 23 788.8000000000001 35 50 40
112 23 796.6 35 50 40
113 23 804.4000000000001 33 49 39
114 23 811.0 32 44 36
115 23 816.4000000000001 27 40 31
116 23 819.0 20 32 30
117 23 821.8000000000001 19 30 29
118 23 824.6 24 40 39
119 23 826.0 19 35 34
120 23 828.8000000000001 28 46 45
121 23 830.2 45 64 62
122 23 830.2 56 71 61
123 23 830.2 60 76 66
124 23 830.2 60 70 64
125 23 830.2 47 57 52
126 23 830.2 33 46 51
127 23 830.2 22 35 39
128 23 830.2 20 30 36
129 23 830.2 22 33 38
130 23 828.8000000000001 48 53 49
131 23 828.8000000000001 64 70 66
132 23 828.8000000000001 68 82 66
133 23 828.8000000000001 67 81 64
134 23 828.8000000000001 61 87 67
135 23 828.8000000000001 59 85 64
136 23 828.8000000000001 53 83 64
137 23 828.8000000000001 52 82 63
138 23 830.2 50 79 65
139 23 830.2 50 79 65
140 23 831.6 53 80 69
141 23 835.8000000000001 58 85 74
142 23 840.0 56 81 70
143 23 844.4000000000001 54 78 68
144 23 851.8000000000001 61 85 75
145 23 857.6 60 84 74
146 23 863.8000000000001 58 80 70
147 23 869.8000000000001 55 78 68
148 23 876.0 54 77 65
149 23 882.4000000000001 54 77 65
150 23 887.2 50 75 62
151 23 890.4000000000001 48 73 60
152 23 892.0 49 69 56
153 23 893.6 52 73 59
154 23 895.2 55 63 53
155 23 895.2 55 63 53
156 23 895.2 60 63 58
157 23 895.2 60 63 58
158 23 896.8000000000001 52 60 55
159 23 898.4000000000001 64 72 67
160 23 900.0 60 70 64
161 23 900.0 62 72 67
162 23 901.8000000000001 63 71 63
163 23 905.0 63 71 63
164 23 908.4000000000001 63 69 60
165 23 911.8000000000001 62 68 59
166 23 913.4000000000001 65 66 59
167 23 918.6 69 70 63
168 23 920.4000000000001 79 68 65
169 23 922.0 100 89 86
170 23 925.6 112 97 95
171 23 929.0 105 90 88
172 23 932.6 84 74 66
173 23 937.8000000000001 79 69 61
174 23 943.2 67 71 59
203 23 1611.4 27 46 40
204 23 1611.4 25 42 34
205 23 1627.4 26 43 35
206 23 1638.2 30 43 34
207 23 1643.6000000000001 30 43 34
208 23 1643.6000000000001 41 42 35
209 23 1643.6000000000001 37 38 31
210 23 1643.6000000000001 85 79 76
211 23 1660.4 156 150 147
218 23 1094.6000000000001 235 231 228
219 23 1094.6000000000001 233 228 225
220 23 1092.2 235 231 228
298 23 2340.2000000000003 220 207 205
299 23 2340.2000000000003 221 208 206
300 23 2340.2000000000003 216 208 201
301 23 2340.2000000000003 221 213 206
302 23 2329.2000000000003 224 221 215
303 23 2318.2000000000003 250 246 241
304 23 2307.2000000000003 246 246 244
305 23 2285.8 253 253 251
306 23 2223.8 252 255 252
379 23 221.4 112 73 75
380 23 221.20000000000002 104 61 59
384 23 220.4 98 54 48
385 23 220.0 98 54 48
386 23 220.0 96 51 46
387 23 219.8 94 49 44
388 23 219.60000000000002 95 48 44
389 23 219.4 93 46 41
390 23 219.4 95 45 39
391 23 219.4 92 43 37
392 23 219.4 93 44 38
393 23 219.4 92 43 37
394 23 219.4 90 41 35
395 23 219.4 91 42 36
396 23 219.4 92 45 38
397 23 219.60000000000002 91 44 37
408 23 220.0 80 41 29
410 23 219.8 76 37 26
411 23 219.60000000000002 73 34 22
412 23 219.20000000000002 75 36 24
413 23 219.0 70 30 19
414 23 218.8 70 34 21
415 23 218.60000000000002 71 35 22
416 23 218.60000000000002 68 31 19
417 23 218.60000000000002 68 31 19
441 23 221.8 63 28 19
442 23 221.60000000000002 60 27 18
443 23 221.60000000000002 60 27 18
444 23 221.4 59 27 15
445 23 221.20000000000002 58 25 14
446 23 221.20000000000002 57 25 10
447 23 221.4 57 25 10
448 23 221.60000000000002 59 27 13
449 23 221.60000000000002 55 24 9
450 23 222.0 57 24 12
452 23 222.60000000000002 51 22 9
456 23 224.60000000000002 60 33 19
458 23 226.4 57 29 16
459 23 227.20000000000002 56 28 15
460 23 227.60000000000002 61 31 16
463 23 229.60000000000002 64 30 16
466 23 231.0 82 39 33
467 23 231.4 79 37 31
468 23 231.8 96 62 60
469 23 232.0 91 58 55
470 23 232.20000000000002 100 76 71
471 23 232.60000000000002 119 95 89
472 23 233.20000000000002 102 85 78
473 23 233.4 127 110 102
474 23 233.8 172 170 155
475 23 234.20000000000002 195 193 178
476 23 234.4 190 189 183
477 23 234.4 194 192 186
478 23 234.20000000000002 193 190 189
479 23 234.0 191 189 188
480 23 233.8 191 186 187
481 23 233.4 189 185 186
482 23 233.20000000000002 194 190 189
483 23 232.8 187 183 182
484 23 232.60000000000002 188 181 179
485 23 232.4 197 190 188
486 23 232.20000000000002 197 191 186
487 23 232.20000000000002 196 190 185
488 23 232.4 191 185 180
489 23 232.60000000000002 193 187 183
490 23 232.8 197 190 188
507 23 239.20000000000002 193 187 187
508 23 239.4 193 187 187
509 23 239.60000000000002 195 188 188
510 23 239.4 197 190 188
511 23 239.60000000000002 197 190 188
512 23 239.60000000000002 187 185 183
513 23 239.60000000000002 189 187 185
514 23 239.20000000000002 191 189 188
515 23 239.0 195 193 191
516 23 238.60000000000002 193 181 183
517 23 238.0 135 123 125
518 23 237.60000000000002 112 84 89
519 23 237.4 112 84 89
520 23 237.0 111 72 76
521 23 236.0 94 54 58
527 23 218.4 78 43 36
528 23 218.20000000000002 76 40 36
529 23 218.20000000000002 71 35 31
530 23 218.20000000000002 70 34 30
531 23 218.0 73 37 34
532 23 218.0 69 32 24
533 23 218.0 69 32 24
534 23 218.0 69 32 22
535 23 217.60000000000002 69 32 22
539 23 213.20000000000002 75 38 28
540 23 211.8 70 32 27
541 23 211.4 69 31 26
542 23 211.20000000000002 74 34 29
543 23 211.20000000000002 71 30 26
544 23 211.20000000000002 70 30 23
545 23 211.20000000000002 71 31 24
546 23 211.20000000000002 73 35 27
547 23 211.20000000000002 70 33 25
548 23 211.20000000000002 63 33 23
549 23 211.20000000000002 65 35 25
550 23 211.20000000000002 62 34 23
551 23 211.20000000000002 60 33 21
552 23 211.20000000000002 62 34 23
553 23 211.20000000000002 62 34 23
554 23 211.0 62 34 23
555 23 211.0 66 38 27
556 23 210.8 66 38 27
557 23 210.4 64 36 25
562 23 208.4 58 31 17
563 23 208.0 63 35 22
564 23 207.8 66 39 25
565 23 207.8 62 34 21
566 23 207.60000000000002 62 34 21
567 23 207.4 63 35 22
568 23 207.20000000000002 63 35 24
569 23 207.20000000000002 59 31 20
570 23 207.0 64 34 24
571 23 206.8 64 34 24
572 23 206.8 64 34 24
573 23 206.60000000000002 62 32 21
574 23 206.8 62 29 22
575 23 206.8 60 27 20
576 23 206.8 62 29 26
577 23 206.60000000000002 60 26 24
588 23 208.4 60 33 19
589 23 208.4 58 31 17
603 23 219.4 60 30 17
604 23 219.20000000000002 62 33 13
605 23 218.8 63 34 15
606 23 218.60000000000002 57 31 10
607 23 218.4 51 25 4
608 23 218.4 56 28 15
609 23 218.4 60 33 19
610 23 218.20000000000002 65 32 25
611 23 218.0 66 33 26
612 23 217.8 76 37 28
613 23 217.60000000000002 83 44 35
614 23 217.4 98 63 52
615 23 217.4 99 64 53
616 23 217.20000000000002 95 74 63
617 23 217.20000000000002 179 158 147
618 23 217.4 197 190 179
619 23 217.4 189 182 171
620 23 217.4 183 182 174
621 23 217.4 183 182 174
622 23 217.60000000000002 180 183 178
623 23 217.8 182 186 180
628 23 219.20000000000002 174 182 179
629 23 219.4 180 188 185
648 23 216.20000000000002 193 185 193
649 23 216.0 176 168 175
650 23 216.0 132 108 116
651 23 216.4 121 97 105
660 23 201.0 81 46 40
661 23 201.0 80 45 39
662 23 201.0 79 44 35
663 23 200.8 74 39 31
664 23 200.60000000000002 71 41 31
665 23 200.60000000000002 72 42 32
666 23 200.60000000000002 68 38 27
667 23 200.4 68 38 27
668 23 200.4 68 37 29
669 23 200.60000000000002 68 37 29
670 23 200.60000000000002 71 38 28
671 23 200.60000000000002 66 33 24
672 23 200.60000000000002 68 36 22
673 23 200.8 68 36 22
674 23 201.0 65 36 21
675 23 201.20000000000002 67 37 22
676 23 201.4 65 36 21
677 23 201.4 62 33 17
678 23 201.4 58 29 14
679 23 201.8 68 38 23
680 23 202.0 71 39 24
681 23 202.0 69 38 23
682 23 202.20000000000002 66 34 20
683 23 202.4 65 33 19
684 23 202.4 62 30 18
685 23 202.60000000000002 66 34 22
686 23 202.4 63 33 23
687 23 202.4 61 31 20
688 23 202.20000000000002 63 32 25
689 23 202.20000000000002 63 32 25
690 23 201.8 70 41 33
691 23 201.60000000000002 60 32 23
692 23 201.0 55 27 16
693 23 200.60000000000002 57 29 18
695 23 199.8 60 33 19
696 23 199.20000000000002 62 32 19
697 23 198.8 67 37 24
736 23 188.0 50 35 13
737 23 187.8 58 44 21
738 23 187.8 57 44 21
739 23 187.8 45 33 10
740 23 187.60000000000002 45 33 19
741 23 187.4 43 32 18
742 23 187.60000000000002 49 39 27
743 23 187.4 43 34 21
744 23 187.20000000000002 42 32 20
745 23 187.0 43 34 21
746 23 186.8 47 35 23
747 23 186.60000000000002 53 41 29
748 23 186.60000000000002 53 39 28
749 23 186.20000000000002 53 39 28
750 23 186.0 53 39 28
751 23 185.8 50 35 24
752 23 185.60000000000002 52 36 23
753 23 185.20000000000002 54 37 25
754 23 185.0 52 34 17
755 23 184.8 52 34 17
756 23 184.4 56 34 14
757 23 184.4 55 33 13
758 23 184.0 59 32 16
759 23 184.0 56 29 13
760 23 184.0 62 32 19
761 23 184.0 61 31 18
762 23 184.0 58 33 16
763 23 183.8 62 38 21
764 23 183.8 62 40 20
765 23 183.8 65 43 24
766 23 183.8 64 48 24
767 23 183.8 68 51 27
768 23 184.0 70 55 33
769 23 184.20000000000002 71 56 34
770 23 184.20000000000002 76 62 51
771 23 184.20000000000002 85 70 59
772 23 184.4 80 74 70
773 23 184.60000000000002 133 127 122
774 23 184.60000000000002 178 180 177
807 23 3412.8 179 196 204
808 23 3461.0 180 197 207
809 23 3461.0 185 202 212
810 23 3485.4 213 235 243
811 23 3485.4 219 241 249
812 23 3461.0 218 239 248
813 23 3436.8 201 222 231
814 23 3389.4 185 201 216
815 23 3343.2000000000003 191 207 222
816 23 3298.4 195 203 219
817 23 3212.2000000000003 193 202 218
818 23 3130.2000000000003 195 202 218
819 23 3052.6000000000004 194 200 216
820 23 2978.6000000000004 193 202 220
821 23 2891.0 193 202 220
822 23 2824.4 198 208 229
827 23 2546.4 197 213 246
828 23 2507.4 192 211 239
829 23 2482.0 194 212 240
830 23 2445.0 194 211 235
831 23 2421.0 199 215 239
832 23 2397.4 207 212 235
833 23 2374.2000000000003 207 212 235
834 23 2362.8 213 221 243
835 23 2362.8 213 221 243
836 23 2351.4 203 223 241
837 23 2340.2000000000003 204 224 242
838 23 2340.2000000000003 202 225 242
839 23 2329.2000000000003 201 223 241
840 23 2329.2000000000003 203 228 245
841 23 2329.2000000000003 208 232 249
842 23 2340.2000000000003 211 233 248
843 23 2340.2000000000003 212 234 249
844 23 2340.2000000000003 216 236 252
845 23 2351.4 216 236 252
40 24 704.0 71 92 87
41 24 704.0 67 88 84
42 24 704.0 72 91 89
43 24 704.0 75 93 91
44 24 705.0 76 96 101
45 24 705.0 83 103 108
46 24 706.2 103 117 128
47 24 707.2 105 119 131
48 24 708.2 102 119 127
49 24 709.2 101 118 126
50 24 710.2 101 120 127
51 24 712.2 99 118 125
52 24 714.4000000000001 99 121 129
53 24 716.4000000000001 98 119 128
54 24 717.4000000000001 99 117 127
55 24 718.4000000000001 97 116 126
56 24 718.4000000000001 95 114 124
57 24 719.6 94 113 122
58 24 719.6 96 115 125
59 24 719.6 94 113 122
60 24 720.6 95 116 123
61 24 720.6 96 118 124
62 24 721.6 99 121 127
63 24 722.8000000000001 100 122 129
64 24 724.8000000000001 98 120 126
65 24 728.0 103 125 131
66 24 731.4000000000001 102 123 130
67 24 734.6 98 120 126
68 24 739.0 97 116 126
69 24 744.6 100 119 128
70 24 749.2 97 103 122
71 24 753.8000000000001 100 106 124
72 24 758.4000000000001 116 97 128
73 24 760.8000000000001 112 93 125
74 24 763.2 113 107 134
75 24 763.2 113 107 134
76 24 764.4000000000001 100 108 132
77 24 764.4000000000001 105 112 137
78 24 764.4000000000001 100 117 134
79 24 763.2 101 119 135
80 24 762.0 110 129 141
81 24 760.8000000000001 111 130 142
82 24 759.6 113 131 141
83 24 758.4000000000001 116 135 144
84 24 757.2 116 135 147
85 24 756.0 117 136 148
86 24 756.0 109 127 132
87 24 755.0 95 113 118
88 24 752.6 56 87 81
89 24 752.6 0 18 12
90 24 751.4000000000001 0 11 13
91 24 750.4000000000001 0 10 12
92 24 750.4000000000001 0 8 5
93 24 749.2 1 10 7
94 24 746.8000000000001 1 13 11
95 24 745.8000000000001 0 12 10
96 24 743.6 1 13 25
97 24 742.4000000000001 1 13 25
98 24 741.2 4 17 24
99 24 740.2 6 18 25
100 24 740.2 17 27 21
101 24 740.2 27 37 32
102 24 739.0 29 45 30
103 24 740.2 32 48 34
104 24 742.4000000000001 24 44 35
105 24 745.8000000000001 31 51 42
106 24 750.4000000000001 33 55 46
107 24 757.2 28 50 40
108 24 764.4000000000001 28 48 37
109 24 772.8000000000001 31 52 40
110 24 780.0 35 53 41
111 24 788.8000000000001 31 49 36
112 24 796.6 25 43 30
113 24 804.4000000000001 30 48 35
114 24 812.4000000000001 24 41 33
115 24 816.4000000000001 18 35 27
116 24 820.4000000000001 21 33 29
117 24 824.6 22 34 30
118 24 826.0 20 38 39
119 24 830.2 27 45 46
120 24 831.6 45 67 59
121 24 833.0 51 73 65
122 24 833.0 57 76 61
123 24 833.0 60 78 63
124 24 833.0 39 49 43
125 24 833.0 30 40 34
126 24 833.0 17 32 38
127 24 831.6 17 32 38
128 24 830.2 20 32 39
129 24 830.2 24 37 44
130 24 830.2 58 65 65
131 24 830.2 66 73 73
132 24 828.8000000000001 67 80 68
133 24 830.2 69 82 71
134 24 830.2 61 85 68
135 24 828.8000000000001 58 81 64
136 24 830.2 51 80 66
137 24 830.2 51 80 66
138 24 831.6 52 79 68
139 24 833.0 52 79 68
140 24 835.8000000000001 49 74 63
141 24 838.6 62 87 76
142 24 843.0 60 84 74
143 24 848.8000000000001 59 83 72
144 24 854.8000000000001 61 86 73
145 24 860.6 64 89 76
146 24 866.8000000000001 59 79 68
147 24 873.0 58 78 67
148 24 877.6 56 76 65
149 24 882.4000000000001 56 76 65
150 24 885.6 56 76 65
151 24 887.2 52 72 61
152 24 888.8000000000001 52 70 57
153 24 890.4000000000001 52 70 57
154 24 892.0 55 61 52
155 24 892.0 57 63 54
156 24 892.0 60 63 58
157 24 892.0 60 63 58
158 24 892.0 60 65 59
159 24 893.6 60 65 59
160 24 895.2 58 66 59
161 24 896.8000000000001 60 68 61
162 24 898.4000000000001 60 68 61
163 24 900.0 60 68 61
164 24 905.0 62 68 61
165 24 906.8000000000001 61 66 60
166 24 910.0 66 62 59
167 24 913.4000000000001 68 64 61
168 24 915.2 97 83 83
169 24 916.8000000000001 121 108 108
170 24 920.4000000000001 131 111 108
171 24 923.8000000000001 137 116 114
172 24 927.2 117 105 95
173 24 929.0 78 66 57
203 24 1638.2 26 45 36
204 24 1649.2 26 45 36
205 24 1666.0 23 43 34
206 24 1671.6000000000001 27 42 32
207 24 1677.4 27 42 32
208 24 1694.6000000000001 38 41 36
209 24 1700.6000000000001 33 37 31
210 24 1694.6000000000001 25 21 20
211 24 1706.4 82 78 77
295 24 2318.2000000000003 223 209 207
296 24 2318.2000000000003 219 206 203
297 24 2329.2000000000003 224 210 208
298 24 2329.2000000000003 223 212 209
299 24 2340.2000000000003 215 204 201
300 24 2329.2000000000003 224 216 212
301 24 2329.2000000000003 249 240 236
302 24 2329.2000000000003 244 242 238
303 24 2318.2000000000003 251 249 245
304 24 2307.2000000000003 254 255 250
381 24 221.20000000000002 107 66 62
382 24 221.0 104 65 58
383 24 220.8 100 60 53
384 24 220.60000000000002 96 56 49
385 24 220.20000000000002 96 56 49
386 24 220.0 93 51 45
387 24 219.8 92 50 44
388 24 219.60000000000002 95 48 44
389 24 219.60000000000002 92 45 40
390 24 219.4 95 45 41
391 24 219.4 92 43 39
392 24 219.4 91 42 36
393 24 219.4 90 41 35
394 24 219.4 88 38 32
395 24 219.4 95 45 39
396 24 219.60000000000002 89 45 37
397 24 219.4 89 45 37
398 24 219.60000000000002 88 44 36
399 24 220.0 88 44 36
400 24 220.0 84 40 30
401 24 220.0 80 36 26
402 24 220.0 83 38 33
403 24 220.0 88 43 38
404 24 220.20000000000002 83 40 36
405 24 220.20000000000002 78 35 32
406 24 220.20000000000002 73 35 29
407 24 220.0 75 37 32
408 24 220.0 72 37 26
409 24 219.8 69 34 23
410 24 219.60000000000002 75 38 28
411 24 219.4 71 34 24
412 24 219.20000000000002 75 36 24
413 24 218.8 71 32 20
414 24 218.60000000000002 73 34 22
415 24 218.20000000000002 73 34 22
416 24 218.20000000000002 66 29 16
417 24 218.20000000000002 69 32 20
418 24 218.20000000000002 69 32 20
441 24 221.60000000000002 60 27 18
442 24 221.4 60 27 18
443 24 221.4 58 25 16
444 24 221.4 53 22 12
445 24 221.20000000000002 55 25 14
446 24 221.20000000000002 54 24 13
447 24 221.20000000000002 54 24 13
458 24 227.8 58 31 17
459 24 228.4 56 28 15
460 24 229.20000000000002 62 33 15
462 24 230.20000000000002 64 32 15
463 24 231.0 64 32 15
465 24 232.0 75 36 24
467 24 232.20000000000002 78 38 31
469 24 232.60000000000002 84 48 46
470 24 232.60000000000002 81 52 48
471 24 233.0 94 65 61
472 24 233.4 96 75 66
473 24 233.4 96 75 66
474 24 233.60000000000002 134 124 112
475 24 234.20000000000002 193 184 171
476 24 234.4 194 191 183
477 24 234.4 192 189 181
478 24 234.20000000000002 190 188 187
479 24 234.20000000000002 190 188 187
480 24 233.8 193 189 188
481 24 233.60000000000002 192 187 187
482 24 233.4 196 189 189
483 24 233.0 193 187 187
484 24 232.60000000000002 193 187 185
485 24 232.20000000000002 198 192 189
486 24 232.0 196 190 185
487 24 232.4 195 188 184
488 24 232.4 195 188 184
489 24 232.8 190 184 179
490 24 233.0 196 190 185
507 24 239.20000000000002 195 188 188
508 24 239.20000000000002 197 188 189
509 24 239.20000000000002 200 190 191
510 24 239.4 197 188 187
511 24 239.4 196 187 186
512 24 239.60000000000002 189 182 180
513 24 239.4 191 185 182
514 24 239.4 192 188 185
515 24 239.20000000000002 193 189 186
516 24 238.60000000000002 193 181 183
517 24 238.20000000000002 149 137 139
518 24 237.8 116 88 93
520 24 237.0 131 90 92
521 24 236.8 115 73 76
528 24 218.20000000000002 76 43 38
529 24 218.0 73 39 35
530 24 218.20000000000002 68 35 28
531 24 218.0 66 33 26
532 24 218.0 65 31 17
533 24 218.0 69 34 21
534 24 218.0 72 39 20
535 24 217.4 69 35 17
539 24 213.20000000000002 71 36 18
540 24 212.20000000000002 68 31 21
541 24 211.60000000000002 70 33 23
542 24 211.20000000000002 74 34 27
543 24 211.20000000000002 72 32 25
544 24 211.20000000000002 68 25 19
545 24 211.20000000000002 65 23 17
546 24 211.20000000000002 68 29 19
547 24 211.4 67 28 18
548 24 211.20000000000002 63 33 21
549 24 211.4 68 38 25
550 24 211.4 62 34 21
551 24 211.4 59 32 18
552 24 211.4 60 33 19
553 24 211.20000000000002 60 33 19
554 24 211.20000000000002 59 32 18
555 24 211.0 59 32 18
556 24 210.8 60 33 19
557 24 210.4 62 34 21
558 24 210.0 61 31 18
560 24 209.20000000000002 62 34 19
561 24 208.60000000000002 62 34 19
562 24 208.4 60 33 17
563 24 208.0 62 34 19
564 24 207.8 67 41 22
565 24 207.8 60 34 15
566 24 207.60000000000002 62 34 19
567 24 207.4 63 36 20
568 24 207.4 57 29 20
569 24 207.20000000000002 56 27 19
570 24 207.20000000000002 60 32 23
571 24 207.0 62 33 25
572 24 207.0 62 32 21
573 24 207.0 57 27 17
575 24 207.0 60 27 20
576 24 207.0 64 29 30
577 24 207.0 61 27 27
588 24 208.8 56 31 19
589 24 208.8 58 32 20
590 24 208.60000000000002 52 26 14
605 24 218.4 63 34 17
606 24 218.4 58 30 10
607 24 218.20000000000002 53 24 4
608 24 218.20000000000002 58 26 10
609 24 218.20000000000002 64 32 15
610 24 218.0 65 30 19
611 24 217.8 69 34 23
612 24 217.60000000000002 84 43 27
613 24 217.4 85 44 29
614 24 217.4 88 49 35
615 24 217.20000000000002 95 56 42
616 24 217.0 92 69 56
617 24 217.20000000000002 158 135 123
618 24 217.20000000000002 201 193 184
619 24 217.4 197 190 181
620 24 217.4 187 186 177
623 24 218.0 182 186 178
628 24 219.4 173 181 176
629 24 219.4 178 186 181
661 24 201.0 82 44 37
662 24 200.8 78 41 31
663 24 200.8 77 40 30
664 24 200.60000000000002 79 46 37
665 24 200.8 75 43 33
666 24 200.60000000000002 70 39 32
667 24 200.60000000000002 68 37 29
668 24 200.60000000000002 67 36 28
669 24 200.60000000000002 69 38 30
670 24 200.8 69 36 29
671 24 201.0 69 36 29
672 24 201.0 71 38 26
673 24 201.4 69 37 25
674 24 201.4 71 38 26
675 24 201.4 72 39 28
676 24 201.60000000000002 71 41 29
677 24 201.60000000000002 68 38 25
678 24 201.8 63 34 19
679 24 201.8 67 37 22
680 24 202.0 72 40 26
681 24 202.0 71 39 24
682 24 202.20000000000002 68 36 22
683 24 202.4 68 36 22
685 24 202.4 67 33 22
686 24 202.4 65 30 23
687 24 202.20000000000002 67 32 26
688 24 202.0 71 41 33
689 24 201.8 61 30 22
690 24 201.8 52 24 15
691 24 201.4 58 30 21
692 24 201.0 56 32 15
693 24 200.60000000000002 56 32 15
694 24 200.20000000000002 62 35 17
695 24 199.8 60 34 15
696 24 199.4 60 36 17
697 24 198.8 62 38 19
698 24 198.60000000000002 61 32 14
722 24 190.20000000000002 54 37 25
723 24 190.20000000000002 51 35 22
726 24 190.20000000000002 55 31 25
735 24 188.60000000000002 46 36 14
736 24 188.20000000000002 49 32 13
737 24 188.20000000000002 53 35 16
738 24 188.0 57 42 24
739 24 188.0 51 36 18
740 24 187.8 46 32 21
741 24 187.8 51 37 25
742 24 187.60000000000002 57 42 31
743 24 187.60000000000002 59 45 34
744 24 187.4 52 43 30
745 24 187.20000000000002 42 32 20
746 24 187.0 47 35 23
747 24 186.8 48 36 24
748 24 186.8 39 27 15
749 24 186.60000000000002 40 28 16
750 24 186.4 41 29 19
751 24 186.20000000000002 43 31 22
752 24 186.0 50 35 24
753 24 185.60000000000002 51 37 25
754 24 185.4 48 35 19
755 24 185.0 48 35 19
756 24 184.8 53 35 18
757 24 184.4 50 33 16
758 24 184.20000000000002 54 29 15
759 24 184.20000000000002 58 33 18
760 24 184.0 74 42 28
761 24 184.0 71 39 24
762 24 184.0 61 30 13
763 24 184.0 60 29 12
764 24 184.0 64 35 18
765 24 183.8 69 40 22
766 24 184.0 68 44 25
767 24 184.0 68 44 25
768 24 184.0 64 47 30
769 24 184.20000000000002 64 47 30
770 24 184.20000000000002 74 61 52
771 24 184.4 85 73 64
772 24 184.4 77 69 63
773 24 184.60000000000002 98 90 84
774 24 184.8 172 173 168
807 24 3412.8 180 198 203
808 24 3412.8 180 197 207
809 24 3436.8 173 190 200
810 24 3436.8 179 196 206
811 24 3436.8 211 227 238
812 24 3436.8 223 242 254
813 24 3389.4 216 235 247
814 24 3366.2000000000003 212 226 242
815 24 3298.4 201 214 230
816 24 3254.6000000000004 198 205 223
817 24 3191.2000000000003 194 200 218
818 24 3110.4 195 196 214
819 24 3033.6000000000004 199 201 219
820 24 2942.8 196 205 220
821 24 2857.2000000000003 192 201 216
822 24 2808.4 195 206 223
823 24 2745.6000000000004 198 209 225
824 24 2685.6000000000004 183 197 220
825 24 2642.2000000000003 189 203 226
826 24 2600.2000000000003 195 213 243
827 24 2559.6000000000004 188 206 236
828 24 2533.2000000000003 189 207 235
829 24 2494.6000000000004 197 215 243
830 24 2469.6000000000004 196 209 237
831 24 2445.0 197 211 238
832 24 2421.0 211 219 241
833 24 2409.0 207 215 238
834 24 2409.0 214 225 242
835 24 2409.0 205 216 232
836 24 2409.0 206 223 240
837 24 2397.4 207 225 241
838 24 2397.4 204 224 240
839 24 2385.6 203 223 239
840 24 2385.6 201 224 239
841 24 2397.4 204 226 241
842 24 2397.4 208 231 246
843 24 2397.4 206 229 244
844 24 2397.4 208 231 246
845 24 2409.0 205 227 242
39 25 702.0 72 91 89
40 25 703.0 71 90 88
41 25 703.0 72 91 89
42 25 703.0 78 96 99
43 25 704.0 83 100 104
44 25 705.0 84 106 114
45 25 706.2 90 111 120
46 25 708.2 95 116 127
47 25 709.2 99 120 131
48 25 710.2 99 116 126
49 25 712.2 100 117 127
50 25 713.2 99 118 125
51 25 715.4000000000001 96 116 123
52 25 717.4000000000001 95 114 124
53 25 719.6 95 114 124
54 25 720.6 96 115 125
55 25 722.8000000000001 94 113 122
56 25 721.6 94 113 120
57 25 722.8000000000001 95 114 122
58 25 721.6 96 116 123
59 25 721.6 94 113 120
60 25 722.8000000000001 92 114 120
61 25 722.8000000000001 99 121 127
62 25 722.8000000000001 102 123 130
63 25 723.8000000000001 98 120 126
64 25 727.0 97 119 125
65 25 729.2 99 121 127
66 25 733.6 95 116 125
67 25 736.8000000000001 92 114 122
68 25 740.2 96 115 127
69 25 744.6 96 115 127
70 25 749.2 98 101 123
71 25 753.8000000000001 95 99 120
72 25 757.2 103 91 122
73 25 759.6 108 96 128
74 25 762.0 111 106 135
75 25 762.0 109 105 134
76 25 763.2 103 108 136
77 25 763.2 107 111 139
78 25 762.0 101 113 134
79 25 760.8000000000001 108 120 141
80 25 759.6 107 128 140
81 25 758.4000000000001 109 130 141
82 25 757.2 114 133 142
83 25 757.2 114 133 142
84 25 756.0 109 130 137
85 25 755.0 109 130 137
86 25 755.0 96 119 116
87 25 753.8000000000001 46 69 66
88 25 752.6 33 56 44
89 25 752.6 0 16 4
90 25 752.6 2 11 8
91 25 751.4000000000001 0 8 5
92 25 750.4000000000001 0 9 4
93 25 749.2 3 13 7
94 25 745.8000000000001 2 15 10
95 25 744.6 0 10 6
96 25 743.6 0 6 19
97 25 741.2 0 8 21
98 25 740.2 5 14 29
99 25 739.0 7 16 31
100 25 738.0 17 32 27
101 25 738.0 29 43 38
102 25 738.0 30 47 37
103 25 739.0 31 48 38
104 25 741.2 22 44 34
105 25 744.6 17 39 29
106 25 748.0 12 36 28
107 25 755.0 18 42 34
108 25 763.2 30 53 38
109 25 770.4000000000001 29 52 37
110 25 777.6 31 52 36
111 25 787.6 26 46 30
112 25 795.2 24 45 31
113 25 803.0 28 48 35
114 25 811.0 19 42 30
115 25 817.8000000000001 9 31 19
116 25 821.8000000000001 13 26 17
117 25 824.6 20 33 24
118 25 827.4000000000001 21 38 33
119 25 830.2 37 53 48
120 25 833.0 53 75 68
121 25 834.4000000000001 59 81 73
122 25 834.4000000000001 52 74 62
123 25 834.4000000000001 45 67 55
124 25 834.4000000000001 22 34 30
125 25 833.0 18 30 26
126 25 833.0 15 27 35
127 25 833.0 18 31 38
128 25 831.6 23 35 45
129 25 831.6 35 47 56
130 25 831.6 65 73 75
131 25 830.2 65 73 75
132 25 830.2 63 75 69
133 25 830.2 63 75 69
134 25 830.2 57 77 66
135 25 830.2 58 78 67
136 25 831.6 52 76 63
137 25 831.6 52 76 63
138 25 833.0 54 79 66
139 25 834.4000000000001 59 83 70
140 25 837.2 66 88 78
141 25 840.0 60 82 72
142 25 845.8000000000001 65 87 75
143 25 851.8000000000001 68 91 79
144 25 857.6 68 91 77
145 25 863.8000000000001 66 89 74
146 25 868.2 57 79 65
147 25 873.0 59 82 67
148 25 877.6 58 78 67
149 25 880.8000000000001 57 77 66
150 25 884.0 56 76 65
151 25 885.6 55 75 63
152 25 887.2 56 69 60
153 25 887.2 55 68 59
154 25 888.8000000000001 60 65 59
155 25 888.8000000000001 60 65 59
156 25 888.8000000000001 62 66 60
157 25 888.8000000000001 62 66 60
158 25 890.4000000000001 61 64 59
159 25 892.0 59 62 57
160 25 892.0 58 66 59
161 25 893.6 60 68 61
162 25 895.2 56 67 59
163 25 898.4000000000001 53 63 55
164 25 901.8000000000001 55 63 55
165 25 905.0 57 65 58
166 25 906.8000000000001 67 63 62
167 25 908.4000000000001 78 73 72
168 25 911.8000000000001 114 100 103
169 25 913.4000000000001 126 112 114
170 25 918.6 125 106 106
171 25 918.6 128 110 109
203 25 1671.6000000000001 23 43 36
204 25 1700.6000000000001 23 43 34
205 25 1724.4 20 39 31
206 25 1742.8000000000002 24 39 32
207 25 1761.4 24 39 32
208 25 1767.8000000000002 36 38 35
209 25 1787.2 36 38 35
210 25 1780.6000000000001 33 31 31
211 25 1793.6000000000001 33 31 31
212 25 1793.6000000000001 71 69 72
293 25 2318.2000000000003 223 214 212
294 25 2318.2000000000003 226 214 214
295 25 2329.2000000000003 223 212 211
296 25 2329.2000000000003 214 205 203
297 25 2329.2000000000003 212 204 202
298 25 2329.2000000000003 214 207 208
299 25 2340.2000000000003 226 219 219
300 25 2329.2000000000003 248 243 242
301 25 2329.2000000000003 255 254 253
302 25 2340.2000000000003 254 252 251
303 25 2329.2000000000003 253 251 249
382 25 221.20000000000002 108 68 59
383 25 221.0 102 63 53
384 25 220.60000000000002 99 59 50
385 25 220.4 96 57 47
386 25 220.20000000000002 93 53 44
387 25 220.0 95 56 46
388 25 219.8 96 54 45
389 25 219.8 90 48 39
390 25 219.60000000000002 91 44 37
391 25 219.4 91 44 37
392 25 219.4 92 43 37
393 25 219.4 90 41 35
394 25 219.4 90 46 38
395 25 219.4 94 49 42
396 25 219.4 88 44 36
397 25 219.60000000000002 87 42 35
398 25 219.60000000000002 86 41 33
399 25 219.8 86 41 33
400 25 220.0 84 40 30
401 25 220.0 80 36 26
402 25 220.0 83 39 31
403 25 220.0 82 38 30
404 25 220.0 79 37 33
405 25 220.0 78 35 32
406 25 220.0 79 39 34
407 25 220.0 74 34 29
408 25 219.8 73 35 29
409 25 219.60000000000002 70 32 27
410 25 219.4 76 39 29
411 25 219.20000000000002 74 37 26
412 25 219.0 72 33 21
413 25 218.60000000000002 65 26 14
414 25 218.20000000000002 70 30 21
415 25 218.0 74 35 25
416 25 218.0 71 34 24
417 25 217.8 68 31 21
418 25 217.60000000000002 69 34 21
419 25 217.4 70 36 22
420 25 217.20000000000002 66 32 19
421 25 217.0 67 33 20
442 25 220.20000000000002 56 26 18
443 25 220.60000000000002 53 22 14
444 25 221.0 53 22 12
459 25 229.8 59 34 19
462 25 231.8 61 32 14
466 25 232.8 75 37 30
467 25 232.8 77 40 32
468 25 233.0 80 45 39
469 25 233.0 74 39 33
470 25 233.20000000000002 96 62 60
471 25 233.4 97 63 61
472 25 233.60000000000002 101 72 66
473 25 233.60000000000002 112 83 77
474 25 234.0 107 91 80
475 25 234.0 151 135 124
476 25 234.4 188 181 170
477 25 234.4 196 189 178
478 25 234.20000000000002 192 186 181
479 25 234.0 195 188 184
480 25 234.0 198 191 191
481 25 233.8 196 189 189
482 25 233.4 193 187 185
